# .PCD v0.7 - Point Cloud Data file format
VERSION 0.7
FIELDS x y z
SIZE 4 4 4
TYPE F F F
COUNT 1 1 1
WIDTH 1463
HEIGHT 1
VIEWPOINT 0 0 0 0.707107 -0.707107 0 0
POINTS 1463
DATA ascii
-5.4599047 -10.776252 -1.8407319
-5.4770689 -10.750531 -1.8175437
-5.4582715 -10.759643 -1.8387043
-5.6656055 -10.711806 -1.7961813
-5.6367278 -10.685823 -1.8014164
-5.5832739 -10.677777 -1.8057581
-5.5292358 -10.679676 -1.8017035
-5.4971027 -10.696022 -1.8179425
-5.9315615 -10.636648 -1.8022461
-5.8879495 -10.632709 -1.8067509
-5.8361993 -10.636557 -1.8124298
-5.7825766 -10.634874 -1.8177902
-5.7367058 -10.635086 -1.8143272
-5.6860089 -10.639924 -1.8215454
-5.6344557 -10.657608 -1.8242791
-5.5850019 -10.661913 -1.8277071
-5.540791 -10.65935 -1.8237283
-5.5024786 -10.656355 -1.836588
-5.9751692 -10.606332 -1.8121794
-5.9415083 -10.606052 -1.8202565
-5.8890266 -10.613964 -1.8229083
-5.8389778 -10.616147 -1.8335066
-5.7959852 -10.622375 -1.8340294
-5.738121 -10.622084 -1.8325084
-5.6811461 -10.623643 -1.8428361
-5.9716053 -10.539832 -1.8205471
-5.9274826 -10.554383 -1.8381079
-5.8956947 -10.549831 -1.8412511
-5.859519 -10.564893 -1.8438023
-5.9428215 -10.526459 -1.8370662
-5.888113 -10.518209 -1.84646
-5.863781 -10.493559 -1.84674
-5.8840623 -10.46554 -1.8441265
-5.8616519 -10.43376 -1.8430454
-5.8016939 -10.444622 -1.8430201
-5.8669143 -10.402647 -1.8412261
-5.8554645 -10.383467 -1.8389096
-5.7904053 -10.403152 -1.8418906
-5.6830759 -10.386288 -1.8431606
-5.8842278 -10.375302 -1.8324529
-5.8030024 -10.34928 -1.8355581
-5.7434335 -10.357602 -1.84067
-5.7116365 -10.337329 -1.8389785
-5.6597786 -10.344711 -1.8446817
-4.4235592 -10.334295 -1.8356144
-5.7953591 -10.294968 -1.8297111
-5.7025318 -10.292679 -1.8401005
-5.6581264 -10.306046 -1.8420284
-4.4407935 -10.30429 -1.8371184
-4.4167356 -10.298262 -1.8358054
-5.7763433 -10.245923 -1.8367186
-5.7431765 -10.244579 -1.8325994
-5.6974397 -10.257645 -1.8420936
-5.745501 -10.204727 -1.8396361
-5.6938615 -10.175967 -1.8460618
-4.4294419 -10.17045 -1.8368187
-4.4037642 -10.172093 -1.8369355
-3.3796761 -10.152717 -1.830292
-3.3637986 -10.178617 -1.8267598
-5.7427921 -10.149093 -1.840521
-4.4398398 -10.134972 -1.8369315
-4.3736315 -10.131699 -1.8362954
-4.3663726 -10.124987 -1.8345445
-3.3976583 -10.143909 -1.8293941
-5.7392287 -10.114856 -1.8452933
-5.6983237 -10.096701 -1.8363875
-4.4713564 -10.069094 -1.8364637
-4.4333649 -10.081863 -1.8376372
-4.4070525 -10.093518 -1.8370515
-4.3160682 -10.08602 -1.8315864
-4.200882 -10.068669 -1.8369828
-3.373183 -10.080236 -1.8273727
-3.3440554 -10.067039 -1.8256932
-5.741972 -10.068797 -1.8461314
-5.7192235 -10.071098 -1.8281555
-4.4625139 -10.013641 -1.8337252
-4.4007497 -10.041595 -1.8341948
-4.3546491 -10.020951 -1.8330427
-4.2982697 -10.026342 -1.8348696
-3.856905 -10.017451 -1.8343192
-3.6911721 -10.008491 -1.8331143
-3.3446009 -10.010266 -1.8246212
-4.5577631 -9.9989595 -1.8392299
-4.4775801 -10.002115 -1.8344916
-4.4458404 -9.981431 -1.8366073
-4.3925571 -9.9835052 -1.8354799
-4.3515525 -9.9786062 -1.8342739
-4.3061008 -9.9768496 -1.8368338
-4.2498116 -9.9711456 -1.8354326
-3.8357613 -9.9778967 -1.8315704
-3.7014167 -9.9821453 -1.8339345
-3.6506948 -9.9664412 -1.8311386
-3.3758442 -9.987092 -1.8301667
-3.3432755 -9.9660053 -1.8205584
-3.3076713 -9.9459448 -1.8219105
-4.8375092 -9.955225 -1.841537
-4.7655625 -9.9266863 -1.8410867
-4.7086473 -9.9396038 -1.8396881
-4.5840096 -9.9357615 -1.8376044
-4.5478845 -9.925971 -1.8391873
-4.4879475 -9.948494 -1.8355078
-4.435854 -9.9395275 -1.8346999
-4.3926787 -9.9327021 -1.8348552
-4.3501868 -9.9259539 -1.8304491
-4.2959685 -9.9298086 -1.8355086
-4.2530522 -9.9497843 -1.8353223
-4.2217951 -9.9109097 -1.8379589
-4.1423297 -9.9178572 -1.8347168
-4.1205273 -9.917695 -1.8360579
-3.7976081 -9.9245167 -1.8287954
-3.673147 -9.9192648 -1.8299962
-3.6413584 -9.9160461 -1.8307261
-3.4747131 -9.9427986 -1.8307642
-3.4600167 -9.9184122 -1.823568
-3.3363953 -9.9105701 -1.8317027
-3.3100121 -9.9112215 -1.8204559
-4.7671962 -9.8801165 -1.8426924
-4.6936078 -9.891799 -1.8399818
-4.6513863 -9.8719301 -1.8415983
-4.604763 -9.8841057 -1.8362522
-4.5370517 -9.8778124 -1.8368671
-4.5021329 -9.8799314 -1.8370919
-4.4455466 -9.8814125 -1.8337075
-4.3984303 -9.8799629 -1.8322648
-4.3481164 -9.8718395 -1.8310353
-4.3062963 -9.8811178 -1.8305612
-4.2429395 -9.8786926 -1.8333281
-4.2016821 -9.8662615 -1.8340783
-4.1441002 -9.8688498 -1.8318081
-4.1140814 -9.8830214 -1.8330747
-3.8287392 -9.8745155 -1.8333243
-3.8024528 -9.8618393 -1.8271219
-3.7714589 -9.8509903 -1.8222039
-3.6510601 -9.874733 -1.8247864
-3.6208656 -9.8771124 -1.8241773
-3.3476634 -9.848258 -1.8277128
-3.2949138 -9.8741398 -1.816447
-5.0930147 -9.8215132 -1.8431721
-5.0286784 -9.8497076 -1.8442872
-5.0059924 -9.8532848 -1.8437698
-4.9482903 -9.8387718 -1.8404207
-4.8940463 -9.8236036 -1.8380114
-4.8454537 -9.8235168 -1.8410835
-4.7967176 -9.8357153 -1.8405548
-4.7506628 -9.8267488 -1.8404164
-4.6992068 -9.8296986 -1.841524
-4.6443748 -9.83776 -1.8399096
-4.586267 -9.8473759 -1.8361071
-4.5496168 -9.8330374 -1.8367172
-4.493084 -9.8348551 -1.8359152
-4.4466915 -9.835248 -1.8350077
-4.4012761 -9.8369303 -1.8309339
-4.3469849 -9.8383846 -1.8285248
-4.2944427 -9.8333702 -1.8276235
-4.2422051 -9.821063 -1.8340527
-4.1973596 -9.8331528 -1.8329499
-4.1462488 -9.8256588 -1.8341892
-4.1137567 -9.8185568 -1.831465
-3.7998116 -9.8229465 -1.8287214
-3.7526786 -9.8159485 -1.8189065
-3.6371737 -9.8161783 -1.8262159
-3.6091003 -9.8114491 -1.8229089
-3.4411974 -9.8041906 -1.820699
-3.2999077 -9.8147869 -1.8198898
-3.2498837 -9.8105888 -1.799632
-5.3649459 -9.7735186 -1.846372
-5.2465854 -9.7866859 -1.8441447
-5.1864586 -9.7884073 -1.8461498
-5.1477242 -9.8027687 -1.8433354
-5.1018081 -9.7924261 -1.8436254
-5.0388885 -9.7849827 -1.8412219
-5.0158992 -9.7950602 -1.8416297
-4.9373164 -9.7832222 -1.8394619
-4.8999085 -9.7837 -1.8394532
-4.85462 -9.7919626 -1.8412411
-4.7856145 -9.7937393 -1.8390771
-4.7434115 -9.7895517 -1.8406124
-4.6940274 -9.79076 -1.8365334
-4.6507702 -9.7821703 -1.8357766
-4.5986862 -9.7841797 -1.8351837
-4.546926 -9.7858477 -1.8342623
-4.4965038 -9.790554 -1.83446
-4.4465022 -9.7946043 -1.8320211
-4.3924112 -9.7709837 -1.8251258
-4.3474121 -9.7890778 -1.8243781
-4.2984891 -9.7749901 -1.8238666
-4.2546206 -9.7725697 -1.8259507
-4.1972346 -9.7724676 -1.8302113
-4.149364 -9.7791872 -1.8256537
-4.1007233 -9.7822523 -1.8304553
-3.7889268 -9.7872934 -1.824738
-3.758682 -9.7806568 -1.8226867
-3.6663854 -9.792923 -1.8308313
-3.5991435 -9.7634649 -1.8202413
-3.4349291 -9.7732134 -1.8209451
-3.4090815 -9.7631464 -1.8172007
-3.287513 -9.7863359 -1.8124458
-3.2438991 -9.7615681 -1.803674
-5.4020524 -9.7328472 -1.8458275
-5.3522987 -9.7225523 -1.84405
-5.2965169 -9.7526941 -1.8440379
-5.2561669 -9.7228022 -1.8453982
-5.1949482 -9.7389374 -1.8422968
-5.1478128 -9.7360954 -1.8410474
-5.0845189 -9.7493296 -1.8375664
-5.0440874 -9.7470713 -1.8392284
-4.9984488 -9.7479506 -1.8394243
-4.9442792 -9.7385149 -1.8398436
-4.8948698 -9.7369823 -1.8385483
-4.842649 -9.7460041 -1.8388696
-4.7923026 -9.735177 -1.838076
-4.747777 -9.7312641 -1.8350544
-4.6879454 -9.7338924 -1.8334577
-4.6470213 -9.7432127 -1.8319252
-4.5989165 -9.7332354 -1.8310488
-4.5520458 -9.7292233 -1.8313462
-4.5036159 -9.7386065 -1.8312825
-4.4579487 -9.7289 -1.8274742
-4.3923593 -9.7354383 -1.8244741
-4.3426452 -9.7373133 -1.8239359
-4.3018813 -9.7342758 -1.8224964
-4.2490473 -9.7358932 -1.826194
-4.1988282 -9.7241831 -1.828511
-4.1539555 -9.7256165 -1.82276
-4.101779 -9.7366753 -1.8234881
-4.0592351 -9.7109137 -1.815141
-3.7916379 -9.7191973 -1.823236
-3.7506139 -9.7229767 -1.8197892
-3.6286206 -9.7171917 -1.8261794
-3.5913906 -9.7201967 -1.8130419
-3.5720308 -9.7153168 -1.8147579
-3.4447055 -9.7285185 -1.8256061
-3.4008768 -9.7298107 -1.8170459
-3.3689172 -9.7036753 -1.8108115
-3.2585852 -9.7194681 -1.8041881
-5.5857725 -9.7170992 -1.8486371
-5.5507975 -9.6737766 -1.8450997
-5.4760742 -9.7097378 -1.8466989
-5.4261432 -9.6783619 -1.8467913
-5.3630018 -9.704855 -1.8452917
-5.2982569 -9.6949482 -1.8412971
-5.2406802 -9.6941156 -1.841787
-5.2115355 -9.7073326 -1.8426386
-5.1659751 -9.6746731 -1.8381373
-5.0985274 -9.6991196 -1.8362677
-5.0271697 -9.6969938 -1.8301967
-4.9928164 -9.6892309 -1.8362764
-4.9430137 -9.6997261 -1.8355287
-4.9017687 -9.6937189 -1.835143
-4.8570704 -9.6881599 -1.8359023
-4.7923489 -9.6957083 -1.8349272
-4.7488122 -9.6851902 -1.8321455
-4.6913342 -9.6969423 -1.830339
-4.6416779 -9.6918468 -1.8295857
-4.5964665 -9.6829119 -1.8294431
-4.5574837 -9.6806774 -1.8310056
-4.4945416 -9.687376 -1.8290839
-4.4533024 -9.6858177 -1.8237315
-4.4055214 -9.6895351 -1.8228434
-4.3562279 -9.6856823 -1.820272
-4.2976413 -9.6804209 -1.81907
-4.2545381 -9.6884508 -1.8228747
-4.2085919 -9.6786079 -1.8204913
-4.1445851 -9.6830463 -1.8209035
-4.0965314 -9.6845741 -1.8214585
-4.046277 -9.6808281 -1.8192016
-4.0216479 -9.6843081 -1.8161861
-3.7409101 -9.6744976 -1.8147624
-3.7071328 -9.6657495 -1.8112999
-3.5904691 -9.676733 -1.8149379
-3.567018 -9.6617832 -1.8099266
-3.3910961 -9.6653309 -1.8155618
-3.3666606 -9.6741695 -1.8075236
-3.2849143 -9.664259 -1.8194634
-3.2346413 -9.6614361 -1.8001627
-3.2112525 -9.6744919 -1.7958528
-5.5033894 -9.6568851 -1.8431689
-5.4499416 -9.6525259 -1.8425519
-5.4047222 -9.6479692 -1.8471127
-5.3426237 -9.6468992 -1.8431876
-5.3023944 -9.6492338 -1.8408228
-5.2420793 -9.6596642 -1.8393974
-5.1977634 -9.6405525 -1.8330804
-5.1445928 -9.6360149 -1.8332939
-5.1039081 -9.6435995 -1.835507
-5.0497904 -9.6436844 -1.8327936
-5.0059271 -9.6335306 -1.8316967
-4.9573903 -9.649292 -1.8323458
-4.8924613 -9.6512222 -1.832032
-4.8476009 -9.6390896 -1.8317881
-4.7964349 -9.6299076 -1.8309139
-4.7473712 -9.6375389 -1.829379
-4.6921 -9.6537247 -1.8288331
-4.6578093 -9.6308613 -1.8249309
-4.6111078 -9.63552 -1.8271617
-4.553483 -9.6329288 -1.8239253
-4.5070629 -9.6352215 -1.8246706
-4.4524436 -9.6345892 -1.8224961
-4.3967299 -9.6404057 -1.8166584
-4.357048 -9.6317959 -1.8170443
-4.2987447 -9.6341219 -1.8172518
-4.2546315 -9.6349659 -1.816571
-4.2101336 -9.6288128 -1.8192874
-4.143621 -9.6222725 -1.8146681
-4.103385 -9.6337118 -1.8175759
-4.0529389 -9.6328821 -1.818691
-4.0146198 -9.6269836 -1.8125739
-3.7311804 -9.635664 -1.8135676
-3.6933386 -9.6143122 -1.8069195
-3.6711431 -9.6046429 -1.8034042
-3.5448096 -9.6224947 -1.8083001
-3.3852749 -9.6440582 -1.8179209
-3.346946 -9.608016 -1.804601
-3.251055 -9.6266031 -1.8032689
-3.2143347 -9.6089458 -1.7948508
-5.5158195 -9.6106005 -1.8389733
-5.454874 -9.6052313 -1.8387132
-5.3437996 -9.588747 -1.8388509
-5.3039079 -9.5954762 -1.8375493
-5.2480884 -9.5898571 -1.8317615
-5.2075815 -9.6004133 -1.8326222
-5.147296 -9.5914745 -1.8321196
-5.0950084 -9.5988941 -1.8332713
-5.0511684 -9.5853615 -1.8291937
-4.9982443 -9.5974913 -1.8291167
-4.9399438 -9.5956116 -1.8288337
-4.8984175 -9.5828323 -1.8268601
-4.8599229 -9.583744 -1.827667
-4.8019819 -9.5816393 -1.822904
-4.7478175 -9.5911341 -1.824297
-4.6914864 -9.5826292 -1.823694
-4.6503959 -9.5922527 -1.8219228
-4.6002178 -9.583353 -1.8228586
-4.5526061 -9.5882463 -1.8232319
-4.5103002 -9.5904799 -1.8238498
-4.4557524 -9.5860453 -1.8194196
-4.4067397 -9.5833216 -1.8181626
-4.3570485 -9.5853672 -1.8152889
-4.3022432 -9.5802879 -1.8123286
-4.25529 -9.5804615 -1.8111415
-4.20754 -9.5779123 -1.8152974
-4.1408081 -9.5773754 -1.8118372
-4.1003942 -9.5742693 -1.8122566
-4.0553923 -9.5811195 -1.8118036
-3.9980905 -9.5713854 -1.8062904
-3.9729278 -9.5593328 -1.8044374
-3.6924472 -9.5758572 -1.80598
-3.5842242 -9.5489178 -1.8118544
-3.545712 -9.5808306 -1.8078361
-3.5221014 -9.5602722 -1.8014365
-3.3873315 -9.5830059 -1.8139631
-3.3435433 -9.578083 -1.8079928
-3.3189967 -9.5495739 -1.8141965
-3.2415321 -9.5872431 -1.8030096
-3.2017758 -9.5738964 -1.7952396
-5.4805627 -9.5674725 -1.8332855
-5.4652705 -9.5395222 -1.833495
-5.4157438 -9.5586967 -1.8333193
-5.3494129 -9.5447388 -1.8330986
-5.2930808 -9.5456324 -1.8313096
-5.2518344 -9.5497255 -1.8333168
-5.210475 -9.5439701 -1.8312719
-5.145925 -9.538578 -1.8267621
-5.0916843 -9.545186 -1.8271275
-5.0386548 -9.5486107 -1.8263364
-5.0043063 -9.550456 -1.8253322
-4.9670701 -9.5287981 -1.8242384
-4.8924847 -9.5313625 -1.8226895
-4.8432159 -9.5434494 -1.8227998
-4.8067198 -9.5391893 -1.8212996
-4.7526159 -9.5401812 -1.8227088
-4.7050338 -9.5288973 -1.8183919
-4.6483302 -9.5365992 -1.8165418
-4.5968471 -9.5420074 -1.8186338
-4.5478363 -9.5454855 -1.8189108
-4.5128217 -9.5439148 -1.8180382
-4.4532671 -9.5500383 -1.8163773
-4.4000702 -9.5443773 -1.8148276
-4.3540411 -9.5377703 -1.8133929
-4.3040304 -9.535552 -1.8114194
-4.2505012 -9.5287218 -1.8082747
-4.194499 -9.5291309 -1.8095644
-4.1506391 -9.5278616 -1.8095802
-4.1000481 -9.5346966 -1.8077377
-4.0513434 -9.5236454 -1.8040172
-4.0080862 -9.5193415 -1.8056424
-3.9691331 -9.535182 -1.8059856
-3.7285554 -9.5375614 -1.810034
-3.6940389 -9.5243454 -1.809907
-3.659919 -9.5266504 -1.8027872
-3.6238711 -9.5025339 -1.8052933
-3.5446975 -9.5325584 -1.8053143
-3.5056958 -9.5174303 -1.8007362
-3.3429964 -9.5093937 -1.8051201
-3.3139994 -9.5227976 -1.8025444
-3.1917243 -9.5236874 -1.7914207
-3.1571007 -9.5228996 -1.7847788
-5.4547453 -9.5033436 -1.8210075
-5.4013963 -9.5014029 -1.8295945
-5.3520026 -9.4952297 -1.8286436
-5.3020182 -9.4974861 -1.8271806
-5.249958 -9.4976959 -1.8255672
-5.1860695 -9.5050983 -1.8244672
-5.1518407 -9.4939375 -1.8231794
-5.1012464 -9.5022926 -1.8227245
-5.0529342 -9.475069 -1.8220876
-4.9898424 -9.4959736 -1.8211541
-4.9557476 -9.4829321 -1.8192868
-4.8978181 -9.493947 -1.8211672
-4.8519282 -9.4920187 -1.8181124
-4.7917576 -9.4945784 -1.8185157
-4.7537231 -9.4881697 -1.8181944
-4.7047858 -9.4794235 -1.8153186
-4.6567178 -9.4904718 -1.8164645
-4.6096697 -9.4862194 -1.8144848
-4.5589671 -9.4864988 -1.8152801
-4.5009761 -9.495306 -1.8133252
-4.4505448 -9.4839392 -1.8093138
-4.3892646 -9.4791765 -1.8086772
-4.3516698 -9.4850636 -1.8080277
-4.301712 -9.4839401 -1.8076514
-4.2470169 -9.4781466 -1.8036288
-4.2100005 -9.482605 -1.8019446
-4.1547294 -9.4836464 -1.8049955
-4.1078634 -9.4740906 -1.8046442
-4.0527301 -9.4771967 -1.8048292
-3.9981401 -9.4753075 -1.8052766
-3.9595745 -9.4651165 -1.8018446
-3.6932316 -9.4655876 -1.804924
-3.6531348 -9.4736309 -1.8003856
-3.6153686 -9.4599876 -1.797523
-3.503144 -9.4700775 -1.7999177
-3.3361797 -9.4945812 -1.8093965
-3.3115101 -9.4705667 -1.8030372
-3.1951828 -9.4678192 -1.7973812
-3.1717162 -9.4840908 -1.7841717
-5.4279675 -9.4570856 -1.8241221
-5.3936524 -9.4460783 -1.8253498
-5.3278222 -9.4590912 -1.8244903
-5.3057251 -9.4333763 -1.8228272
-5.2442164 -9.4545603 -1.8231342
-5.2023053 -9.440136 -1.8234842
-5.1552868 -9.4452314 -1.8208513
-5.1154666 -9.4431391 -1.8236725
-5.0533447 -9.4596691 -1.8221449
-5.0010433 -9.4415092 -1.8166752
-4.9492974 -9.4419203 -1.8165092
-4.9120307 -9.4371719 -1.8144222
-4.8454919 -9.4346619 -1.8155599
-4.8098426 -9.4328556 -1.8165438
-4.7411318 -9.4385061 -1.8145638
-4.6995177 -9.4361954 -1.8131202
-4.6510806 -9.4291058 -1.810487
-4.6087351 -9.4314365 -1.80925
-4.5579491 -9.4304485 -1.808863
-4.4978271 -9.44314 -1.8077607
-4.4504509 -9.4353313 -1.8077765
-4.4081635 -9.4241791 -1.8062378
-4.3575535 -9.4277716 -1.8052527
-4.3010263 -9.4367437 -1.8025796
-4.2443819 -9.425827 -1.7995315
-4.2038035 -9.4347916 -1.8003865
-4.1550031 -9.4294357 -1.8007524
-4.1042314 -9.4337339 -1.8009318
-4.0614576 -9.4244041 -1.7994606
-3.9982922 -9.4297342 -1.8017242
-3.9521213 -9.4327803 -1.8003802
-3.9230926 -9.4344149 -1.7944292
-3.6485081 -9.4267073 -1.8010492
-3.6122115 -9.4238091 -1.7992302
-3.4913313 -9.4293718 -1.7993125
-3.4586127 -9.4127607 -1.7948159
-3.2944648 -9.4238892 -1.7975105
-3.1954322 -9.4392147 -1.7995954
-3.1557405 -9.4178925 -1.7894932
-5.4285765 -9.4077721 -1.8036883
-5.3695793 -9.4141712 -1.8221043
-5.3035192 -9.3937416 -1.8164002
-5.2662544 -9.3969975 -1.8187197
-5.1945629 -9.3860006 -1.8159701
-5.1571603 -9.3872061 -1.8154485
-5.102551 -9.3947182 -1.8154898
-5.0418329 -9.3996639 -1.8137665
-5.0099173 -9.3969364 -1.8134128
-4.9527812 -9.3851147 -1.8109484
-4.9075298 -9.3883343 -1.8123381
-4.8536305 -9.384428 -1.8105441
-4.7967453 -9.3903065 -1.8132329
-4.7509265 -9.3802423 -1.8053464
-4.7021837 -9.3915939 -1.8087608
-4.6532464 -9.3852367 -1.8071254
-4.6033287 -9.3817244 -1.8065715
-4.5554619 -9.3927364 -1.8060499
-4.5109892 -9.3818769 -1.8034474
-4.4536939 -9.3868313 -1.8041297
-4.3978362 -9.3776913 -1.8041859
-4.3594251 -9.3879852 -1.802128
-4.3009124 -9.3872938 -1.8014877
-4.2576809 -9.3826799 -1.7993915
-4.2052875 -9.3858509 -1.7984531
-4.1529536 -9.378089 -1.7990611
-4.1048436 -9.3864737 -1.7988435
-4.0579753 -9.3810806 -1.7986391
-4.0028038 -9.3735418 -1.7990239
-3.9521096 -9.3791428 -1.7980456
-3.9167902 -9.3736715 -1.7975506
-3.6537125 -9.3832207 -1.804129
-3.608999 -9.3855228 -1.7945611
-3.450439 -9.3660126 -1.792303
-3.2867699 -9.3753777 -1.7919049
-3.2601945 -9.3524847 -1.7866521
-3.1435764 -9.3629389 -1.7904372
-5.3847351 -9.3652735 -1.8157275
-5.3580198 -9.3348017 -1.8133063
-5.3029065 -9.3509264 -1.8147912
-5.2471623 -9.3355188 -1.8134317
-5.2075138 -9.3411789 -1.8139889
-5.157208 -9.3563271 -1.8125273
-5.1095257 -9.335062 -1.8118966
-5.0603838 -9.3394547 -1.8118745
-5.0019498 -9.3411331 -1.8099338
-4.9644933 -9.3429346 -1.8095036
-4.9108734 -9.3370733 -1.8088713
-4.8558969 -9.3434839 -1.8067952
-4.8017402 -9.3317099 -1.8044237
-4.7564507 -9.3361454 -1.8049154
-4.7043281 -9.3414392 -1.8037424
-4.6542463 -9.3436623 -1.8038614
-4.6080437 -9.3391657 -1.8030468
-4.5471883 -9.3397045 -1.8018126
-4.4987111 -9.3284216 -1.7996489
-4.4539061 -9.3331318 -1.8013688
-4.3994036 -9.3372421 -1.8006747
-4.3532076 -9.3278446 -1.7993642
-4.3092375 -9.3234234 -1.7952138
-4.2575359 -9.3313732 -1.7964948
-4.2031565 -9.3315239 -1.7959471
-4.1473613 -9.3346415 -1.7985779
-4.1015558 -9.3204708 -1.7978563
-4.0587564 -9.3280611 -1.797331
-4.0052876 -9.321373 -1.7969713
-3.9601321 -9.3251419 -1.7968539
-3.9129956 -9.3290224 -1.7948077
-3.8691971 -9.311305 -1.7897136
-3.6419401 -9.3419361 -1.7995529
-3.6035666 -9.3259726 -1.7946687
-3.567246 -9.3219013 -1.7898202
-3.4893897 -9.3117723 -1.7980815
-3.4602482 -9.307848 -1.7936875
-3.4247701 -9.3179369 -1.7910804
-3.2960138 -9.3140039 -1.794844
-3.2683024 -9.3014345 -1.7983766
-3.1612997 -9.3279114 -1.7921596
-3.1244218 -9.3111305 -1.7900448
-5.3389688 -9.2960987 -1.8083688
-5.306067 -9.2972136 -1.8114226
-5.2586532 -9.2961292 -1.8090886
-5.2119293 -9.305809 -1.812132
-5.1554294 -9.2857838 -1.8116043
-5.1112361 -9.2828941 -1.8083187
-5.0529399 -9.2901649 -1.8079641
-5.0031657 -9.2792988 -1.8054657
-4.9521289 -9.282464 -1.8062601
-4.9164934 -9.2896166 -1.8079672
-4.8625793 -9.2997942 -1.8056724
-4.7988834 -9.2981367 -1.8036041
-4.764122 -9.2883606 -1.8019572
-4.7101278 -9.302393 -1.8016858
-4.6568193 -9.2935638 -1.802196
-4.5988989 -9.2828016 -1.79881
-4.5658216 -9.2899961 -1.7994927
-4.5140071 -9.2811928 -1.796997
-4.4532976 -9.2731695 -1.7979091
-4.40341 -9.2778835 -1.7973747
-4.3560462 -9.2866163 -1.796671
-4.3141723 -9.2823105 -1.7947625
-4.263104 -9.2847757 -1.7947299
-4.2054782 -9.2854719 -1.7943449
-4.1535249 -9.2792072 -1.7950447
-4.0970917 -9.2758732 -1.7957519
-4.0604877 -9.2778778 -1.7953148
-4.0084186 -9.2866678 -1.796226
-3.9702027 -9.2735424 -1.7952446
-3.913094 -9.2836809 -1.7955141
-3.876544 -9.2704239 -1.7922918
-3.5992525 -9.2683372 -1.7909439
-3.5742526 -9.2691412 -1.7915711
-3.4643116 -9.2743759 -1.7937762
-3.4074934 -9.270833 -1.7909794
-3.1232343 -9.2578545 -1.7843863
-5.2966981 -9.2522745 -1.8084638
-5.2478867 -9.2369537 -1.8102607
-5.2036242 -9.2314978 -1.8067278
-5.1640859 -9.2484064 -1.8076379
-5.1178985 -9.2417297 -1.8077475
-5.0652428 -9.2381287 -1.803139
-5.0146976 -9.240118 -1.8038174
-4.951766 -9.2453241 -1.8042519
-4.9057374 -9.2356339 -1.8023523
-4.8525114 -9.2383604 -1.8002151
-4.8103757 -9.2410688 -1.8004245
-4.7600441 -9.2349377 -1.8014667
-4.7050858 -9.2477236 -1.7984109
-4.6610084 -9.2348156 -1.7993313
-4.6136794 -9.2541208 -1.8008436
-4.5539594 -9.2429419 -1.7976691
-4.5139737 -9.2247505 -1.7974381
-4.4514389 -9.2415667 -1.7958671
-4.3972301 -9.2394714 -1.7959629
-4.3610792 -9.2331915 -1.7960349
-4.3097982 -9.2386999 -1.7941567
-4.253612 -9.2421837 -1.7932748
-4.1918449 -9.2516069 -1.7929012
-4.1606164 -9.2379026 -1.7925574
-4.1117263 -9.2328329 -1.7940129
-4.0730066 -9.2435246 -1.7967179
-4.0051799 -9.2262192 -1.7933834
-3.9487958 -9.2359953 -1.7938218
-3.9088888 -9.2337179 -1.7932467
-3.8702202 -9.2102528 -1.7908567
-3.5984292 -9.2444906 -1.7928569
-3.555414 -9.2276764 -1.7886926
-3.4388299 -9.2144136 -1.7899201
-3.4250534 -9.2033176 -1.7896087
-3.2511754 -9.229866 -1.7896239
-5.2891674 -9.2158098 -1.8092976
-5.2552505 -9.1905727 -1.8067081
-5.2044306 -9.214138 -1.8057567
-5.1696801 -9.2005205 -1.8050284
-5.1047111 -9.1991539 -1.8064021
-5.0569663 -9.1822367 -1.8027841
-5.0069976 -9.1946917 -1.8004842
-4.9384708 -9.198123 -1.7992747
-4.9054213 -9.205555 -1.801474
-4.8514876 -9.2002716 -1.7998695
-4.8050508 -9.1946001 -1.799998
-4.7522926 -9.1915894 -1.7996267
-4.7076044 -9.1944141 -1.7997234
-4.6772757 -9.1857643 -1.7984949
-4.5763087 -9.2010708 -1.7963436
-4.3182516 -9.206296 -1.7946142
-4.1155705 -9.1894102 -1.7925379
-3.9751148 -9.1985397 -1.7915583
-3.9176888 -9.1850815 -1.7912074
-3.879406 -9.1957741 -1.7907572
-3.4512222 -9.1942005 -1.7871449
-5.2521453 -9.1514883 -1.8020626
-5.1899858 -9.162468 -1.8017428
-5.1060467 -9.1375818 -1.8023822
-5.064826 -9.1494446 -1.8011274
-4.9462204 -9.1640921 -1.8019528
-4.9139953 -9.1480713 -1.7983645
-4.8490281 -9.1555119 -1.7977284
-4.8089557 -9.1288729 -1.7976429
-4.7696514 -9.1443481 -1.7972991
-4.7215643 -9.1586609 -1.797662
-4.6817927 -9.1548386 -1.7976146
-5.2151575 -9.1135721 -1.8035337
-5.0397878 -9.1066246 -1.8007648
-4.8524179 -9.1075544 -1.7981094
-5.0928593 -13.395572 -1.7406347
-5.10497 -13.33691 -1.7534481
-5.1139297 -13.294241 -1.7466816
-5.1337967 -13.223444 -1.7541614
-5.1221523 -13.245422 -1.7495066
-5.1395993 -13.191977 -1.7479105
-5.12995 -13.210189 -1.7474517
-5.148932 -13.142701 -1.7445177
-5.1539564 -13.093167 -1.7430989
-4.3679504 -13.009709 -1.7594798
-4.3450065 -13.004083 -1.7357125
-4.3106327 -12.97583 -1.7247076
-4.3089004 -12.931689 -1.7494274
-4.2717085 -12.933376 -1.7556376
-4.2080402 -12.908135 -1.7700636
-4.2442479 -12.899043 -1.759371
-4.1546817 -12.886491 -1.7311391
-4.1793284 -12.846792 -1.739959
-4.4605594 -12.787071 -1.7580568
-5.2431931 -12.68253 -1.7488022
-4.2233095 -12.677388 -1.7387737
-5.2505293 -12.645997 -1.7502075
-5.2297645 -12.649603 -1.7641627
-4.24652 -12.654868 -1.7500373
-4.2173381 -12.613914 -1.7393698
-5.2612939 -12.598316 -1.7415229
-5.2114863 -12.607936 -1.7631812
-4.2067246 -12.570576 -1.7581667
-5.2528524 -12.554373 -1.7359371
-5.2132258 -12.538959 -1.7588793
-4.3165302 -12.52432 -1.7635124
-5.2505984 -12.50979 -1.7424451
-5.2190604 -12.51326 -1.7500343
-5.1857476 -12.470124 -1.7620624
-4.3442507 -12.477989 -1.7683583
-4.3373337 -12.465549 -1.7293031
-5.2070827 -12.453782 -1.749602
-5.1933503 -12.382353 -1.7359824
-5.1531968 -12.389476 -1.7465559
-5.1407886 -12.393623 -1.7518392
-4.3035593 -12.392673 -1.7676444
-4.2657495 -12.378634 -1.7642967
-5.1673422 -12.341351 -1.739834
-5.1609168 -12.29175 -1.7379196
-5.1069517 -12.306186 -1.7400426
-4.5174294 -12.280663 -1.7453066
-5.1122866 -12.252679 -1.7392267
-5.0661826 -12.233393 -1.7464951
-4.4661798 -12.221877 -1.7522241
-5.0622439 -12.180317 -1.7595603
-5.0361013 -12.17665 -1.759541
-4.5030003 -12.164129 -1.7437938
-4.472126 -12.174792 -1.761093
-5.1136451 -12.153265 -1.7323227
-5.0709081 -12.150006 -1.7608503
-5.0309687 -12.164933 -1.7510775
-4.5022726 -12.152084 -1.7385437
-4.467175 -12.15157 -1.7359743
-4.4252515 -12.14107 -1.7526759
-5.0968099 -12.10125 -1.752901
-5.0828433 -12.091245 -1.7602373
-4.4914703 -12.102514 -1.7632655
-4.4378223 -12.072326 -1.7462952
-4.2016897 -12.05934 -1.7602171
-4.1923275 -12.069198 -1.767844
-5.1019702 -12.035518 -1.732491
-5.077383 -12.032762 -1.7621058
-5.1533465 -11.975424 -1.7533648
-5.1239376 -11.983728 -1.7568592
-5.0780463 -12.005071 -1.7717718
-4.3998852 -11.965672 -1.7692745
-5.1595039 -11.942632 -1.7545588
-5.1359963 -11.949128 -1.7642193
-5.1701694 -11.894764 -1.7546837
-5.1400228 -11.896474 -1.7762121
-4.1642528 -11.88415 -1.7682225
-4.1186757 -11.890119 -1.7449814
-4.0957718 -11.857997 -1.7522757
-5.1797895 -11.83932 -1.7613972
-4.1210451 -11.830213 -1.7602292
-4.0882373 -11.849742 -1.7428104
-5.2048092 -11.789054 -1.7407047
-5.184906 -11.790744 -1.7656062
-4.1286325 -11.781258 -1.7465553
-5.2143965 -11.737176 -1.7481862
-5.1898108 -11.743719 -1.7778094
-4.2961187 -11.728777 -1.755399
-5.2213745 -11.694196 -1.7562137
-5.1970134 -11.713305 -1.7782495
-4.29881 -11.701032 -1.7583839
-5.2306643 -11.648601 -1.7601991
-5.258215 -11.587142 -1.7486721
-5.241003 -11.594156 -1.7683797
-3.8812087 -11.596654 -1.7500918
-3.8123298 -11.596667 -1.7349721
-5.2710414 -11.53843 -1.7549149
-5.249609 -11.544499 -1.7746376
-5.2789736 -11.489728 -1.7625588
-4.2214947 -11.460649 -1.7572058
-5.3121095 -11.435575 -1.743366
-5.2887211 -11.450449 -1.7663004
-4.2316847 -11.454298 -1.7670451
-5.3157134 -11.394552 -1.7557503
-5.2958169 -11.404181 -1.7750802
-5.3254256 -11.342108 -1.7654492
-5.3005667 -11.343736 -1.7847906
-3.6636539 -11.338306 -1.7554895
-5.511178 -11.274685 -1.7879206
-5.4768853 -11.287369 -1.7780931
-5.3587623 -11.288994 -1.7410312
-5.334537 -11.300796 -1.7674975
-3.937717 -11.283884 -1.762337
-3.7522507 -11.291818 -1.7515635
-5.5137682 -11.229128 -1.7693301
-5.4875307 -11.248435 -1.7615012
-5.4370761 -11.242386 -1.7638551
-5.3595099 -11.246396 -1.7451516
-5.3441381 -11.245001 -1.7627853
-3.9278758 -11.220733 -1.743898
-3.8911958 -11.226979 -1.7576644
-5.5257516 -11.195746 -1.7675947
-5.5020175 -11.214181 -1.7517562
-5.4214239 -11.215353 -1.7575274
-5.3743262 -11.203215 -1.7618427
-5.3455901 -11.205703 -1.7766774
-3.7263741 -11.189219 -1.7625186
-3.6426601 -11.165131 -1.7656256
-5.5309076 -11.156346 -1.7617975
-5.5232224 -11.091378 -1.7682536
-5.5271745 -11.05832 -1.7738121
-5.5029302 -11.035398 -1.755517
-3.5263958 -11.036283 -1.7665066
-5.5225091 -11.007794 -1.7783165
-5.4948845 -10.989172 -1.7528781
-5.5113091 -10.923224 -1.7896732
-5.4930592 -10.949643 -1.7579297
-3.6254227 -10.919106 -1.7391447
-3.526612 -10.935756 -1.7473974
-5.4826689 -10.89152 -1.7557408
-5.4830332 -10.841795 -1.767149
-5.7116761 -10.785361 -1.7483565
-5.6876173 -10.779898 -1.7493284
-5.4900432 -10.794236 -1.766754
-3.5105784 -10.775725 -1.7398583
-5.7352867 -10.747881 -1.7558411
-5.6876106 -10.753733 -1.770545
-5.6328244 -10.744765 -1.7675416
-5.6033945 -10.733533 -1.7509087
-5.5146074 -10.729029 -1.7537742
-5.501112 -10.74311 -1.7674679
-6.0185375 -10.687832 -1.7564843
-5.9868774 -10.690987 -1.7614765
-5.9389653 -10.700133 -1.765552
-5.8919458 -10.688788 -1.7742904
-5.8584895 -10.677675 -1.7632127
-5.7678099 -10.68059 -1.7469853
-5.7341142 -10.704437 -1.7681003
-5.6918297 -10.702657 -1.789389
-5.6229877 -10.700429 -1.7876049
-5.5821505 -10.703839 -1.7722721
-5.5338097 -10.697281 -1.7671473
-5.5065074 -10.708211 -1.7766166
-6.0213523 -10.675841 -1.765003
-5.9890366 -10.665124 -1.7845088
-5.9440169 -10.655376 -1.7929325
-5.8881326 -10.667843 -1.7814021
-5.8379831 -10.662686 -1.7762567
-5.7838616 -10.649993 -1.7703009
-5.7446709 -10.653922 -1.7769352
-5.6997714 -10.659162 -1.7919825
-5.6299438 -10.673062 -1.793923
-5.5522547 -10.672367 -1.7927649
-5.9796762 -10.613647 -1.7936021
-5.9506726 -10.624883 -1.7945604
-3.138792 -9.4456911 -1.7788594
-4.2308073 -9.4180317 -1.7906506
-3.1571188 -9.4162426 -1.781221
-5.4087534 -9.3943796 -1.7954049
-4.1787462 -9.370882 -1.788638
-3.6234124 -9.3502836 -1.7864386
-3.1453335 -9.3713322 -1.7786716
-3.1174738 -9.3635178 -1.7805213
-4.5539918 -9.3302431 -1.7943515
-4.4898567 -9.3264723 -1.7922969
-4.2459011 -9.321455 -1.7891725
-4.1964841 -9.3135681 -1.789147
-4.1431565 -9.3335886 -1.7911481
-4.0873375 -9.3074541 -1.7904333
-4.0626378 -9.3223724 -1.788268
-3.9929225 -9.3407612 -1.785807
-3.974139 -9.3144178 -1.7884097
-3.897737 -9.3134584 -1.7892011
-3.4530325 -9.3258829 -1.7840625
-3.2436464 -9.3125916 -1.783566
-3.108155 -9.3146315 -1.7747778
-4.8600502 -9.2676973 -1.7970989
-4.7878885 -9.266902 -1.7958453
-4.7126269 -9.2777805 -1.7955647
-4.6687531 -9.2947941 -1.7951645
-4.590538 -9.2776117 -1.7913759
-4.562417 -9.2809696 -1.7915636
-4.50842 -9.2730217 -1.7913455
-4.3969054 -9.2771568 -1.7903278
-4.3398204 -9.2747602 -1.7930825
-4.3066931 -9.2878656 -1.7906702
-4.2577696 -9.2675056 -1.7898942
-4.2043862 -9.2693605 -1.7905895
-4.1594748 -9.2894306 -1.7887391
-4.0501513 -9.2777777 -1.789726
-3.9994161 -9.2554331 -1.7867278
-3.9500573 -9.2849293 -1.7876487
-3.9108269 -9.269475 -1.7882562
-3.8741112 -9.2977142 -1.7833978
-3.5652251 -9.2556505 -1.7817248
-3.4151213 -9.265831 -1.7817286
-3.2480421 -9.251379 -1.7802634
-3.2251556 -9.271739 -1.7796484
-3.0943871 -9.2607203 -1.7722648
-5.3429933 -9.2452049 -1.7735817
-5.3208661 -9.2480869 -1.7913613
-4.7342691 -9.2397394 -1.7946419
-4.6971612 -9.2351408 -1.7947245
-4.6482434 -9.241189 -1.7952733
-4.6065688 -9.2449703 -1.7932478
-4.5733018 -9.2544899 -1.7938434
-4.5014796 -9.2231836 -1.7903402
-4.4502683 -9.2303019 -1.7931598
-4.4002337 -9.2220926 -1.7893182
-4.3598733 -9.2273092 -1.7906256
-4.3107228 -9.2250853 -1.7891408
-4.2633066 -9.2344885 -1.7885554
-4.1989899 -9.2275038 -1.7885871
-4.1510892 -9.2225075 -1.7884982
-4.0919785 -9.2253675 -1.7885512
-4.0469837 -9.2200632 -1.7879493
-3.9953558 -9.2297726 -1.7893579
-3.9547668 -9.223568 -1.7859385
-3.9013877 -9.2285042 -1.7869217
-3.8583486 -9.2296638 -1.7834312
-3.5956213 -9.2005768 -1.7873328
-3.5614815 -9.2261171 -1.7788069
-3.5279262 -9.2047749 -1.7734783
-3.443363 -9.2458725 -1.7834911
-3.3984048 -9.2127066 -1.779763
-3.2356024 -9.2350454 -1.7825422
-3.0994539 -9.2205505 -1.7665712
-3.0679052 -9.201705 -1.76826
-5.2840624 -9.1921682 -1.7919742
-5.2812977 -9.1902742 -1.7962584
-5.0942826 -9.1926851 -1.7985996
-5.0004625 -9.1736813 -1.796622
-4.9614081 -9.1774473 -1.7969842
-4.9108481 -9.174716 -1.7968521
-4.8736715 -9.1854115 -1.7962195
-4.8158484 -9.1919041 -1.7960732
-4.7589478 -9.1824942 -1.7926407
-4.6991839 -9.1796007 -1.7942917
-4.6467323 -9.1880856 -1.7918308
-4.6091614 -9.1888304 -1.7929115
-4.5643039 -9.1841335 -1.7916101
-4.5096426 -9.190793 -1.7896403
-4.4499798 -9.1755924 -1.7892592
-4.4162874 -9.1807013 -1.7901156
-4.35673 -9.1766605 -1.7910773
-4.308929 -9.1876783 -1.7896466
-4.2577868 -9.1876507 -1.7870872
-4.1992331 -9.1827536 -1.7863876
-4.1573343 -9.1782827 -1.7864155
-4.1079674 -9.1804008 -1.7885129
-4.0549998 -9.1683531 -1.7878995
-4.0076933 -9.1724005 -1.7857814
-3.9491103 -9.1743727 -1.7855885
-3.9074976 -9.1810589 -1.7864435
-3.8633265 -9.1719074 -1.7833092
-3.8186109 -9.1632166 -1.7815167
-3.5505433 -9.1672354 -1.7811822
-3.5272269 -9.1964006 -1.7786899
-3.4353189 -9.1831512 -1.7861531
-3.3927433 -9.1738396 -1.7772042
-3.3552861 -9.1714487 -1.7671615
-3.2319758 -9.1655989 -1.7840053
-3.2035224 -9.1622276 -1.7708678
-3.0865753 -9.1576815 -1.769065
-3.0566344 -9.160531 -1.7645578
-5.2651682 -9.1353312 -1.7918168
-5.220839 -9.1557302 -1.7993146
-5.1550965 -9.1404428 -1.7992206
-5.0446825 -9.1352577 -1.7975615
-4.9876204 -9.1526814 -1.7950575
-4.962172 -9.1429482 -1.7958854
-4.9129605 -9.1359997 -1.7943765
-4.8548155 -9.1433477 -1.7944767
-4.8000488 -9.1369743 -1.79475
-4.756608 -9.1362925 -1.7933658
-4.7020597 -9.1385784 -1.7944263
-4.6566243 -9.1371231 -1.7933784
-4.5997109 -9.1377325 -1.7920526
-4.5627813 -9.1340675 -1.7908938
-4.5092111 -9.1319313 -1.7881875
-4.4502687 -9.1334333 -1.7872485
-4.4157104 -9.1355686 -1.7873421
-4.3607006 -9.1328869 -1.7841343
-4.3052254 -9.1333456 -1.7855359
-4.2527409 -9.1268635 -1.7833009
-4.2122378 -9.1281538 -1.7833967
-4.1586051 -9.1358404 -1.7824386
-4.1119251 -9.1333647 -1.7851125
-4.0584092 -9.1243553 -1.7828876
-4.0129914 -9.1234055 -1.7814476
-3.9597266 -9.1301699 -1.780357
-3.910558 -9.1269712 -1.7811964
-3.8614316 -9.1278591 -1.77951
-3.810652 -9.1185808 -1.7765263
-3.5504572 -9.1273642 -1.7746272
-3.5183089 -9.1092072 -1.76569
-3.398221 -9.1034412 -1.772453
-3.3774431 -9.1435223 -1.7700241
-3.2025783 -9.1168423 -1.7678204
-3.172637 -9.1062365 -1.7529998
-3.0589161 -9.1184492 -1.7611022
-5.2495351 -9.1044807 -1.7820723
-5.2104063 -9.0833664 -1.7975974
-5.1553125 -9.0874033 -1.7953496
-5.1153769 -9.1086884 -1.7980609
-5.0766287 -9.1005182 -1.798553
-5.010922 -9.0993366 -1.7956362
-4.9555669 -9.0904713 -1.7926617
-4.9125905 -9.0859909 -1.7933528
-4.8520637 -9.0814381 -1.7931521
-4.8042517 -9.0816593 -1.7892148
-4.7617254 -9.08601 -1.791564
-4.7089982 -9.0889626 -1.7892566
-4.6602664 -9.0825958 -1.7884473
-4.6095729 -9.0810804 -1.7868973
-4.5559921 -9.0847931 -1.7870793
-4.5104923 -9.0933228 -1.7859889
-4.4460101 -9.0783253 -1.7846116
-4.4032865 -9.0809975 -1.7834369
-4.3542557 -9.0836496 -1.7806861
-4.3034611 -9.0807657 -1.7791936
-4.2613931 -9.0756712 -1.7788796
-4.2094159 -9.0837116 -1.7803462
-4.1600409 -9.0799637 -1.7787753
-4.1107812 -9.0755835 -1.7790172
-4.052856 -9.0815973 -1.7775367
-4.0126572 -9.0799589 -1.7800589
-3.9644654 -9.0764236 -1.777288
-3.9022975 -9.0683088 -1.7746288
-3.853312 -9.0792656 -1.7735114
-3.8099422 -9.0815754 -1.772733
-3.7666831 -9.0527906 -1.7648199
-3.5418925 -9.092679 -1.7739434
-3.5006459 -9.0538712 -1.7572228
-3.3418627 -9.0696726 -1.7558484
-3.1627254 -9.0896826 -1.7548968
-3.0681772 -9.0594826 -1.7538072
-3.0055833 -9.066371 -1.7468313
-5.2034335 -9.0462036 -1.7892339
-5.1556125 -9.0416508 -1.7931124
-5.1267114 -9.0379982 -1.7960261
-5.0659924 -9.0289621 -1.7925484
-5.0092034 -9.0429163 -1.7924113
-4.9595103 -9.0412683 -1.7886147
-4.9073024 -9.0447149 -1.7903683
-4.8583961 -9.0440369 -1.7894968
-4.8113852 -9.0431519 -1.7899275
-4.7498097 -9.0347528 -1.7883399
-4.7142582 -9.0321627 -1.7876004
-4.6620989 -9.0442543 -1.7876197
-4.610642 -9.0377903 -1.7846966
-4.5609827 -9.0408592 -1.7832422
-4.5114708 -9.0332527 -1.7798252
-4.4653864 -9.0342493 -1.7820367
-4.4082284 -9.0316067 -1.7797265
-4.3560567 -9.0402241 -1.7795178
-4.3048143 -9.0390863 -1.7783446
-4.2619705 -9.0326023 -1.7775736
-4.216784 -9.0305891 -1.7757649
-4.1595693 -9.0360985 -1.7762194
-4.100359 -9.0259142 -1.7764028
-4.0603175 -9.0207605 -1.7725614
-4.0061898 -9.0337677 -1.7736356
-3.9628029 -9.0314436 -1.7718079
-3.8990757 -9.0247774 -1.7710218
-3.8577528 -9.0238323 -1.7681173
-3.8057475 -9.0279961 -1.7667137
-3.7747903 -9.0101261 -1.7625673
-3.5088296 -9.0340452 -1.7584046
-3.4592376 -9.0116968 -1.7495973
-3.3119221 -9.0037699 -1.7406975
-3.0557473 -9.023922 -1.7507855
-2.9981935 -8.9940224 -1.7454243
-5.2000003 -8.9825974 -1.777948
-5.1611071 -8.9861927 -1.7900623
-5.1067672 -8.988349 -1.7869105
-5.058435 -8.9847488 -1.7878559
-4.9857278 -9.0025692 -1.7887601
-4.9578862 -8.993329 -1.7863282
-4.9110255 -8.9900856 -1.7850512
-4.8567142 -8.9844694 -1.7817194
-4.8057714 -8.9944344 -1.7851167
-4.7692866 -8.9883986 -1.7856134
-4.7005301 -8.9891071 -1.7834849
-4.6664467 -8.9990854 -1.7847036
-4.6129246 -8.9850893 -1.7833923
-4.5540938 -8.9819746 -1.7805549
-4.5152526 -8.9959764 -1.7811092
-4.4546432 -8.9831905 -1.7789137
-4.4080038 -8.9865227 -1.7776484
-4.3551431 -8.9931564 -1.7775021
-4.3052473 -8.9821234 -1.7748442
-4.2582669 -8.9802771 -1.7732106
-4.1987128 -8.9717751 -1.7719307
-4.1533351 -8.9831553 -1.7716218
-4.1116734 -8.9810019 -1.7710916
-4.0553427 -8.9840603 -1.7702265
-3.994463 -8.9835978 -1.7688786
-3.9644766 -8.972888 -1.7657163
-3.9201481 -8.9773979 -1.7647734
-3.8671331 -8.9743385 -1.7638708
-3.807215 -8.9736204 -1.7602451
-3.7654262 -8.9743528 -1.7586082
-3.5106616 -8.994525 -1.7579074
-3.3152552 -8.9614716 -1.7403007
-3.0536907 -8.9604845 -1.7460304
-3.0078034 -8.9810104 -1.7477404
-5.1951714 -8.9376764 -1.7694856
-5.1803827 -8.922327 -1.7862997
-5.1001387 -8.9410286 -1.787004
-5.0566096 -8.9519405 -1.7852787
-4.9983592 -8.943346 -1.7848521
-4.9531221 -8.9494467 -1.7854466
-4.9130321 -8.9430828 -1.7831324
-4.8552938 -8.9412956 -1.778782
-4.8191395 -8.9354992 -1.7798303
-4.7721868 -8.9398823 -1.7809678
-4.7070374 -8.9408035 -1.7790306
-4.6519728 -8.9387054 -1.7797631
-4.6112084 -8.9303417 -1.7787865
-4.5673957 -8.9456234 -1.7778171
-4.5075345 -8.9203539 -1.7751453
-4.4665179 -8.9325752 -1.7748361
-4.4055271 -8.9281693 -1.7745343
-4.3648434 -8.9291859 -1.7728722
-4.3107409 -8.9338169 -1.7717905
-4.2520633 -8.9309444 -1.770076
-4.212101 -8.9214964 -1.7676134
-4.1642594 -8.9284515 -1.7674836
-4.1208181 -8.9260817 -1.765393
-4.0767884 -8.9142694 -1.7635747
-4.0064259 -8.9271374 -1.7648178
-3.958147 -8.9278746 -1.7550334
-3.9232903 -8.939002 -1.7593668
-3.8703306 -8.9179296 -1.7537493
-3.8088236 -8.9296141 -1.7557393
-3.7530594 -8.9219904 -1.7494978
-3.446501 -8.9057074 -1.7394197
-3.3156796 -8.9197607 -1.7393792
-2.9847112 -8.9176455 -1.7392876
-5.194272 -8.8944798 -1.7565757
-5.1652799 -8.8806086 -1.7785408
-5.1160703 -8.8777704 -1.7819264
-5.0600686 -8.8848143 -1.7799139
-5.012959 -8.8934507 -1.7805855
-4.9553194 -8.8965321 -1.7833844
-4.9130516 -8.8779984 -1.7799692
-4.8562765 -8.8993587 -1.7790276
-4.8198695 -8.8906326 -1.7770792
-4.7602673 -8.8872938 -1.7730818
-4.7081285 -8.8880005 -1.7772006
-4.6566758 -8.8879299 -1.7749234
-4.6008258 -8.8806086 -1.7733579
-4.5636477 -8.8822184 -1.7722007
-4.5122104 -8.8873634 -1.7725469
-4.465766 -8.8787327 -1.7708116
-4.4055572 -8.8799696 -1.7704731
-4.3718324 -8.8796587 -1.7688692
-4.3096614 -8.8807907 -1.7677958
-4.2619495 -8.8762188 -1.7675476
-4.2106085 -8.8764591 -1.7657371
-4.1643734 -8.8805285 -1.7642254
-4.112988 -8.8784456 -1.7612388
-4.0551143 -8.8799925 -1.7585177
-4.0154729 -8.8779345 -1.7550126
-3.9636405 -8.8771687 -1.754218
-3.8966799 -8.8599157 -1.7480214
-3.8663023 -8.8719187 -1.7464556
-3.8143699 -8.8766909 -1.744193
-3.76107 -8.8857975 -1.7482995
-3.7284577 -8.8757057 -1.7462977
-5.1884737 -8.848093 -1.7691627
-5.176424 -8.841342 -1.7698544
-5.1334262 -8.8334532 -1.779126
-5.0650997 -8.8416214 -1.7784671
-5.0170765 -8.8408985 -1.7753216
-4.9622059 -8.8380814 -1.7769756
-4.9111257 -8.8380976 -1.7769663
-4.8667212 -8.8373537 -1.7753199
-4.809854 -8.8332596 -1.7733063
-4.7656603 -8.846468 -1.7747551
-4.7118096 -8.8386707 -1.7735568
-4.6514912 -8.8247051 -1.771776
-4.6157255 -8.8332701 -1.771439
-4.5519791 -8.8383656 -1.7717324
-4.5099845 -8.8298426 -1.7680291
-4.4556437 -8.8362064 -1.7682638
-4.4152803 -8.8321018 -1.7660569
-4.360054 -8.8307676 -1.7651974
-4.312078 -8.8303709 -1.7644973
-4.2630229 -8.825429 -1.7620919
-4.2067728 -8.821969 -1.759358
-4.172482 -8.8222485 -1.7610892
-4.1172066 -8.8327484 -1.757867
-4.0551615 -8.8300419 -1.7528653
-4.0162296 -8.8149576 -1.7496376
-3.9775836 -8.8447933 -1.7444894
-3.8612986 -8.8398895 -1.7461149
-3.8215196 -8.8367367 -1.7430886
-3.7152486 -8.8371553 -1.7433478
-5.1761999 -8.7994289 -1.7677824
-5.1183796 -8.7829466 -1.7751536
-5.0566001 -8.8036947 -1.7756044
-5.0195494 -8.7853775 -1.7729157
-4.956923 -8.796998 -1.7740262
-4.9032812 -8.7926846 -1.7719258
-4.8530641 -8.7878609 -1.7711269
-4.7989712 -8.7842808 -1.7700464
-4.7651916 -8.7835608 -1.769974
-4.7113419 -8.7825756 -1.7691524
-4.665906 -8.7901878 -1.7673129
-4.6067667 -8.7835522 -1.7660304
-4.5699816 -8.781724 -1.7649893
-4.5031438 -8.78372 -1.7655656
-4.4488778 -8.7824202 -1.7630776
-4.4195948 -8.7845097 -1.76346
-4.3564787 -8.7785616 -1.7621452
-4.3078737 -8.7804937 -1.7592789
-4.2616849 -8.7799845 -1.7580805
-4.2163835 -8.7753143 -1.7549026
-4.1648307 -8.7867622 -1.7575097
-4.1187067 -8.7835426 -1.7522327
-4.0684085 -8.7911654 -1.7502862
-4.0076933 -8.7920122 -1.7468781
-5.1591344 -8.7345428 -1.7671574
-5.1133151 -8.7325888 -1.7721201
-5.0158248 -8.7414932 -1.774091
-4.961978 -8.7417479 -1.7708931
-4.9085932 -8.7427406 -1.7680548
-4.8611965 -8.7404814 -1.7678467
-4.8190765 -8.7403431 -1.7659054
-4.7689781 -8.7422352 -1.7665776
-4.7101684 -8.748065 -1.7656397
-4.6646218 -8.739151 -1.7672131
-4.6071377 -8.738204 -1.7632217
-4.5598788 -8.7298803 -1.761951
-4.5109243 -8.7359581 -1.762082
-4.4644895 -8.7260551 -1.7605047
-4.3971729 -8.7402678 -1.7605062
-4.3679872 -8.7357454 -1.7596672
-4.321177 -8.7282419 -1.7592109
-4.2608032 -8.7400532 -1.7557838
-4.2230787 -8.7337084 -1.753518
-4.155745 -8.7327423 -1.7500099
-4.1311183 -8.7520647 -1.7501715
-5.1605749 -8.6954699 -1.7588778
-5.1054497 -8.6930332 -1.7697275
-5.0553203 -8.6816912 -1.7701004
-5.0177956 -8.6962786 -1.7671913
-4.9664435 -8.707859 -1.769388
-4.9027991 -8.696826 -1.7660521
-4.8497591 -8.6741209 -1.7638706
-4.8108068 -8.6887007 -1.7661886
-4.7534122 -8.7018013 -1.7621301
-4.7167273 -8.6893406 -1.7619619
-4.6502118 -8.6819553 -1.7628868
-4.6217136 -8.6819239 -1.759696
-4.5600042 -8.679162 -1.7581017
-4.5154729 -8.6875534 -1.7587411
-4.4574471 -8.6992254 -1.7588967
-4.361762 -8.6964846 -1.7545005
-4.3182292 -8.6872168 -1.7548354
-4.2819872 -8.6687927 -1.7488614
-4.2073598 -8.6944218 -1.7481384
-4.1502028 -8.7019825 -1.7471761
-5.1528091 -8.6571302 -1.7619097
-5.1111255 -8.6515875 -1.7667217
-5.0545015 -8.6360464 -1.7646502
-4.9731455 -8.6494818 -1.7653667
-4.9150038 -8.6339731 -1.7613908
-4.8712664 -8.6299448 -1.7596017
-4.8170433 -8.6336679 -1.7584318
-4.7735682 -8.6557035 -1.7610313
-4.7344656 -8.6483097 -1.7581612
-4.6637573 -8.6307316 -1.7567568
-4.6020308 -8.6501207 -1.7587454
-4.5166721 -8.6416407 -1.7550591
-4.3971605 -8.6571903 -1.748863
-4.3804407 -8.6562195 -1.7495378
-4.2262783 -8.642149 -1.7468193
-5.0797563 -8.5979891 -1.7608789
-4.9438982 -8.6121292 -1.7610415
-4.9185991 -8.6005163 -1.7593691
-4.855638 -8.6112995 -1.7529135
-4.8062029 -8.5787497 -1.7512887
-4.7636981 -8.5979166 -1.7548137
-5.026649 -8.5606918 -1.7581575
-1.9185956 -3.013617 -1.7727305
-5.0975428 -13.38722 -1.6966113
-5.1060829 -13.345729 -1.7064658
-5.1158237 -13.294019 -1.7009828
-5.1341438 -13.227461 -1.7019558
-5.1220059 -13.24909 -1.7052925
-5.1382799 -13.187514 -1.7053654
-5.1281662 -13.198328 -1.692045
-5.1490097 -13.138474 -1.7050688
-5.1559677 -13.094902 -1.6908253
-4.3566356 -13.004366 -1.7129375
-4.2569828 -12.922672 -1.6933662
-4.1407037 -12.93077 -1.6776619
-4.4214892 -12.893586 -1.7011793
-4.2443647 -12.887163 -1.6935544
-4.2027221 -12.896814 -1.6975273
-4.1439242 -12.877557 -1.679616
-4.2486615 -12.72151 -1.7121477
-4.1677427 -12.738872 -1.6977843
-5.2485595 -12.677513 -1.7034123
-4.2565594 -12.65623 -1.7026833
-5.2640142 -12.637203 -1.706373
-4.215662 -12.627014 -1.7036163
-5.292223 -12.589579 -1.6908934
-5.2781625 -12.597448 -1.7103415
-4.354363 -12.566677 -1.7142011
-5.2958345 -12.541832 -1.6933137
-5.2825127 -12.54574 -1.7036524
-4.3192911 -12.510203 -1.6859453
-4.1646709 -12.523165 -1.6764038
-5.3025355 -12.499678 -1.6889443
-5.2789435 -12.482377 -1.7004335
-4.355454 -12.505704 -1.7224345
-4.3303347 -12.484153 -1.7004403
-5.2652297 -12.450183 -1.7014509
-5.2369499 -12.418824 -1.7055629
-5.2765903 -12.40669 -1.692165
-5.2359676 -12.377021 -1.7106898
-5.1852636 -12.369172 -1.7288964
-4.280581 -12.366199 -1.6895946
-5.2656975 -12.358293 -1.6820855
-5.209156 -12.341049 -1.71141
-5.1783552 -12.324111 -1.7150826
-4.4764853 -12.347325 -1.6960585
-5.2165103 -12.273827 -1.6942667
-5.1824317 -12.288131 -1.7134626
-4.5058236 -12.282706 -1.7108866
-4.4740872 -12.28435 -1.6987413
-5.1756101 -12.239527 -1.7121977
-5.1349587 -12.229529 -1.7226266
-4.5065794 -12.248775 -1.7051789
-4.4678206 -12.227705 -1.7021089
-5.1726089 -12.201563 -1.7039652
-5.1250267 -12.193301 -1.7278708
-4.5025606 -12.192465 -1.7237561
-4.4750056 -12.192875 -1.7097005
-4.4329824 -12.176742 -1.6888956
-5.1192913 -12.135687 -1.7121941
-5.0877924 -12.143473 -1.7302504
-4.4990253 -12.14538 -1.6893753
-4.4574084 -12.138782 -1.7040443
-4.4425297 -12.139982 -1.7025104
-5.1615591 -12.101105 -1.6885642
-5.1233544 -12.093756 -1.7044517
-5.0906763 -12.100519 -1.7259371
-4.4259114 -12.095308 -1.6847725
-5.1180639 -12.0375 -1.7064478
-5.0915651 -12.027733 -1.729178
-4.3876042 -12.049342 -1.6797574
-5.1656375 -11.987502 -1.7050278
-5.1335654 -11.999125 -1.7180606
-4.4045272 -11.971688 -1.7147654
-4.3959799 -11.960623 -1.7110915
-5.2010789 -11.925481 -1.6883435
-5.178339 -11.946176 -1.711886
-4.4164062 -11.941889 -1.7101942
-4.1062169 -11.920046 -1.6851449
-5.2106967 -11.892712 -1.6914288
-5.1813207 -11.899868 -1.7189447
-4.1267295 -11.89646 -1.7079295
-4.0831385 -11.853884 -1.6788629
-5.2168655 -11.844672 -1.702498
-5.1969037 -11.847459 -1.7255198
-4.1270933 -11.842241 -1.6981857
-5.2262502 -11.796161 -1.7084339
-4.3010716 -11.761879 -1.6961225
-5.258009 -11.740716 -1.6932937
-5.2340493 -11.741019 -1.7172472
-4.2525134 -11.71665 -1.7278945
-5.2615647 -11.691176 -1.7020868
-5.2434869 -11.69584 -1.7230035
-5.2651358 -11.643208 -1.7136359
-5.2471328 -11.657935 -1.7263031
-5.3018355 -11.581791 -1.6933501
-5.2783895 -11.592894 -1.7154696
-5.3093295 -11.546331 -1.6972119
-5.2925587 -11.54971 -1.7174324
-5.318059 -11.487566 -1.7093521
-5.2949662 -11.502687 -1.7303712
-5.3278127 -11.4436 -1.7136221
-5.3602705 -11.381178 -1.6999481
-5.3401771 -11.394844 -1.7179154
-5.3658242 -11.347232 -1.7039759
-5.3457475 -11.354602 -1.7262524
-5.3675222 -11.293383 -1.7171373
-5.3514404 -11.308887 -1.7331297
-3.9574471 -11.276735 -1.7156333
-3.9166775 -11.286682 -1.7026395
-3.7597854 -11.266452 -1.6906308
-5.4777522 -11.230221 -1.7266747
-5.4446115 -11.227001 -1.73455
-5.3752513 -11.2442 -1.7144698
-3.9275825 -11.234177 -1.6933883
-3.8822505 -11.237536 -1.7107338
-3.7499681 -11.238972 -1.7096694
-5.5118332 -11.187291 -1.715396
-5.4907231 -11.20507 -1.7113347
-5.4267631 -11.206964 -1.710974
-5.3871946 -11.207516 -1.7154622
-3.8754394 -11.190951 -1.7220728
-5.5193481 -11.142778 -1.7186074
-3.8653438 -11.10755 -1.6807648
-3.8527381 -11.118831 -1.7089485
-3.6982839 -11.102893 -1.6926072
-5.5124397 -11.096704 -1.7192454
-5.5025034 -11.087271 -1.7117071
-5.5097289 -11.066496 -1.740065
-5.5004764 -11.046081 -1.716825
-3.6275766 -11.041031 -1.6934923
-3.5669088 -11.032968 -1.7265445
-5.4917293 -11.004319 -1.7172195
-3.6628797 -10.989286 -1.6842185
-3.6528878 -10.979803 -1.7145376
-3.5125217 -10.961143 -1.7035744
-5.4797339 -10.943063 -1.7168032
-3.5620062 -10.937242 -1.7051891
-3.5298049 -10.933455 -1.6945531
-3.4948492 -10.929306 -1.695634
-5.4789996 -10.893661 -1.7121469
-3.5180168 -10.889631 -1.7126056
-5.6946707 -10.828915 -1.6948335
-5.5156398 -10.83663 -1.696435
-5.4908438 -10.845143 -1.7205249
-5.7843103 -10.791054 -1.7098523
-5.7378435 -10.798446 -1.7166644
-5.690289 -10.797558 -1.7232903
-5.6384153 -10.783559 -1.7100523
-5.5143647 -10.791162 -1.7047806
-5.5034356 -10.79337 -1.7274176
-3.4585054 -10.746482 -1.688048
-6.0234656 -10.733595 -1.7125968
-5.9970846 -10.731082 -1.7115521
-5.9596057 -10.728078 -1.7231779
-5.8178725 -10.757367 -1.6978422
-5.7818618 -10.753999 -1.7240525
-5.7488298 -10.769401 -1.7359498
-5.6274214 -10.762341 -1.7226748
-5.5847239 -10.736651 -1.7194324
-5.5310984 -10.734467 -1.7102847
-5.5066614 -10.750033 -1.7211944
-3.4390986 -10.742614 -1.6803408
-6.0292311 -10.71571 -1.7227031
-5.9835658 -10.720007 -1.7242227
-5.9414206 -10.712748 -1.733281
-5.8906212 -10.685876 -1.7211273
-5.837698 -10.684409 -1.7084187
-5.7881422 -10.696135 -1.723505
-5.7592783 -10.697763 -1.7433602
-5.5706387 -10.718813 -1.7310793
-5.5349789 -10.714917 -1.7264757
-5.8721657 -10.671121 -1.7151929
-5.8402457 -10.66683 -1.7180653
-5.791369 -10.6667 -1.7341957
-5.32094 -9.3476648 -1.7288209
-5.3223538 -9.2894449 -1.7317657
-5.2954106 -9.2352819 -1.7229698
-5.3161345 -9.1884537 -1.7393383
-5.2544446 -9.2096357 -1.7018739
-5.2568064 -9.0857334 -1.7263031
-5.2331772 -9.0369091 -1.7094362
-5.2198353 -8.9877958 -1.7218113
-3.279022 -8.9478226 -1.7365582
-3.12837 -8.9498215 -1.7314109
-3.0363581 -8.9667168 -1.7348998
-5.2035799 -8.9336157 -1.7332289
-3.4510758 -8.8980169 -1.734388
-3.2941787 -8.9288673 -1.7331159
-5.1906695 -8.8920097 -1.7234089
-3.7774701 -8.8637857 -1.7377259
-3.7226739 -8.8594494 -1.7376072
-3.4580262 -8.8741484 -1.7343295
-3.4104071 -8.876874 -1.7283076
-3.2982447 -8.8740664 -1.7253045
-3.2722042 -8.8531017 -1.7199131
-3.2340214 -8.8519182 -1.7159538
-3.1029301 -8.854496 -1.7249398
-2.9506569 -8.8492546 -1.7126976
